ply
format ascii 1.0
comment VCGLIB generated
element vertex 1224
property float x
property float y
property float z
property float nx
property float ny
property float nz
element face 0
property list uchar int vertex_indices
end_header
0.02506194 0.7148781 0.1144 0 0 1 
0.2019895 1.307142 0.1144 0 0 1 
0.1682152 0.3263187 0.116 0 0 2 
0.015625 0.5646 -0.0215 0 3 0 
-0.03125 0.5646 -0.059 0 3 0 
-0.01169048 0.5372562 -0.084 0 0 -2 
-0.02968265 0.5599125 -0.08024999 0 2.707107 -2.707107 
0.2060288 1.322734 0.1144 0 0 2 
0.4192789 0.5567875 0.116 0 0.7071068 2.707107 
0.1695374 0.3067875 0.116 0 0 3 
-0.1521774 0.544507 0.1144 0 0 2 
-0.03125 0.5646 -0.04025 0 3 0 
-0.328125 0.5646 -0.05665625 0 4 0 
0.2623572 1.056619 0.03315 2.999891 -0.02555747 0 
-0.46875 0.5646 0.091 0 3 0 
-0.2371912 0.5632113 0.03297812 -2.999891 5.02556 0 
-0.01135927 0.2169438 -0.084 0 0 -2 
0.2632891 1.16599 -0.07544375 3.999855 -0.03408056 0 
-0.28125 0.5646 -0.002750001 0 3 0 
-0.3453076 0.5599125 -0.08024999 0 2.707107 -2.707107 
-0.4873729 0.5579894 0.0708077 -5.653931 -0.6597762 0 
-0.0102363 0.07534218 0.07107812 -5.65393 -5.659778 0 
-0.078125 0.5646 0.08865625 0 4 0 
-0.15625 0.5646 0.016 0 3 0 
0.4046924 0.5599125 -0.08024999 0 2.707107 -2.707107 
-0.21875 0.5646 -0.059 0 3 0 
0.46875 0.5646 -0.002750001 0 3 0 
0.1821051 0.8072934 -0.0856 0 0 -1 
-0.15625 0.5646 -0.002750001 0 3 0 
0.46875 0.5646 0.016 0 3 0 
0.241555 0.7547017 -0.0856 0 0 -3 
0.1176245 0.8807622 -0.0856 0 0 -3 
0.453125 0.5646 0.1058437 0 4 0 
-0.006217258 1.017239 0.1144 0 0 3 
-0.03125 0.5646 0.016 0 3 0 
-0.1867577 1.529213 -0.004350001 0.0255661 2.999891 0 
0.359375 0.5646 0.05115625 0 4 0 
0.03125 0.5646 0.03475 0 3 0 
0.1345661 0.7295707 0.1144 0 0 3 
-0.2361604 1.232748 -0.02075625 -3.999855 0.03408044 0 
0.1694549 0.6980223 0.1144 0 0 2 
-0.007251938 0.5901489 0.1144 0 0 1 
0.02874356 0.5626113 0.1092167 0 2 1 
0.15625 0.5646 0.07225 0 3 0 
0.02705882 0.9492446 -0.0856 0 0 -3 
0.3862784 0.4507607 0.05216071 4.952311 -4.947183 0 
-0.08302336 1.325197 -0.0856 0 0 -2 
-0.4575454 0.5221893 0.01466071 -4.947189 -4.952304 0 
-0.04193757 0.1070107 0.01466071 -4.947189 -4.952304 0 
-0.046875 0.5646 -0.0215 0 3 0 
-0.007784438 0.5276512 -0.0231 -0.02556037 -2.999891 0 
-0.08191411 0.4513187 0.116 0 0 2 
-0.117104 0.4838708 0.116 0 0 3 
-0.09889372 0.5021 0.116 0 0 3 
-0.06239767 0.4656416 0.116 0 0 3 
-0.02584779 0.3771 0.116 0 0 3 
0.04308589 0.4513187 0.116 0 0 2 
-0.1874731 0.5385583 0.116 0 0 3 
0.109375 0.5646 -0.0215 0 3 0 
0.1877873 0.557236 -0.0856 0 0 -2 
-0.005920687 0.7463932 -0.0856 0 0 -1 
0.09375 0.5646 -0.002750001 0 3 0 
0.3126562 0.4135583 -0.084 0 0 -3 
0.1707624 0.5612518 -0.07819643 0 4.707107 -2.707107 
0.2774609 0.4513187 -0.084 0 0 -2 
0.08214839 0.4513187 0.116 0 0 2 
-0.2238937 0.5021 0.116 0 0 3 
-0.06226842 0.3406416 0.116 0 0 3 
0.167997 0.5372562 -0.084 0 0 -2 
-0.1354879 0.6693693 0.1144 0 0 2 
0.1876542 0.5416115 -0.0856 0 0 -3 
0.2582304 0.5722613 0.08705625 3.999855 -0.03408051 0 
0.1134549 0.3966312 0.116 0 0 2 
-0.02154513 0.7465264 -0.0856 0 0 -1 
0.006729519 0.8556645 0.1144 0 0 2 
-0.2060641 0.6387196 0.1144 0 0 2 
-0.2247083 1.201399 0.1144 0 0 2 
-0.008008528 1.418311 0.1144 0 0 3 
0.1329875 0.3953291 0.116 0 0 3 
0.1329714 0.4109541 0.116 0 0 3 
0.04321514 0.3263187 0.116 0 0 2 
-0.1522266 0.4513187 -0.084 0 0 -2 
-0.1170286 0.4109541 -0.084 0 0 -3 
-0.09889372 0.5021 -0.084 0 0 -3 
-0.06239767 0.4656416 -0.084 0 0 -3 
-0.08191411 0.4513187 -0.084 0 0 -2 
-0.117104 0.4838708 -0.084 0 0 -3 
-0.08031538 1.184543 -0.0856 0 0 -1 
0.2595616 0.7285057 0.08705625 3.999855 -0.03408044 0 
0.1861443 0.8228847 0.1144 0 0 2 
-0.2221667 1.041215 -0.0856 0 0 -4 
0.1204061 0.9015727 0.1144 0 0 1 
0.007842119 0.5359542 -0.084 0 0 -3 
0.2589155 0.7545538 0.1078028 7.413944 -0.06317003 2.414214 
-0.06176218 1.528148 -0.04185 0.02555465 2.999892 0 
0.2567205 0.8535345 -0.0856 0.7070811 -0.006024639 -1.707107 
0.1340336 0.667073 -0.0856 0 0 -3 
-0.2361604 1.232748 0.106275 -4.706936 0.04010507 0.7071068 
0.09914489 0.6986213 -0.0856 0 0 -2 
0.03125 0.5646 -0.0215 0 3 0 
0.2592954 0.6972568 0.06877501 4.999818 -0.04260063 0 
-0.2348291 1.388992 -0.05825625 -3.999855 0.03408056 0 
-0.1867577 1.529213 0.0144 0.0255661 2.999891 0 
-0.06176218 1.528148 0.0144 0.02555465 2.999892 0 
-0.06176218 1.528148 -0.004350001 0.02555465 2.999892 0 
0.03198445 1.527349 0.07065 0.02556609 2.999891 0 
0.3633661 0.4825687 0.116 0 0 2 
0.2269956 0.8798304 -0.0856 0 0 -3 
0.02999811 1.523459 0.1097125 0.02307005 2.707008 1.707107 
0.03198445 1.527349 0.0894 0.02556609 2.999891 0 
-0.06322657 1.356279 -0.0856 0 0 -3 
0.1569799 1.526284 0.03315 0.0255661 2.999891 0 
0.1569799 1.526284 0.0144 0.0255661 2.999891 0 
0.1569799 1.526284 0.0519 0.0255661 2.999891 0 
-0.2338972 1.498363 -0.076225 -1.999927 0.01704022 0 
0.009658271 1.199402 -0.0856 0 0 -2 
-0.223731 0.857628 -0.0856 0 0 -3 
0.2659517 1.478479 0.01674375 3.999855 -0.03408044 0 
0.132896 0.4838708 -0.084 0 0 -3 
0.04507951 1.230351 -0.0856 0 0 -3 
0.2194777 1.525751 0.0144 0.02555465 2.999892 0 
-0.13278 0.5287162 0.0519 -0.02556037 -2.999891 0 
-0.046875 0.5646 0.05115625 0 4 0 
-0.2364266 1.201499 -0.07544375 -3.999855 0.03408044 0 
-0.007784438 0.5276512 0.0519 -0.02556037 -2.999891 0 
-0.046875 0.5646 0.01365625 0 4 0 
0.2432716 0.6505166 0.1144 0 0 1 
0.08054623 0.8081588 0.1144 0 0 2 
-0.007784438 0.5276512 0.0144 -0.02556037 -2.999891 0 
0.02346444 0.5273849 -0.004350001 -0.02556037 -2.999891 0 
-0.2180066 1.529479 -0.04185 0.02555465 2.999892 0 
0.02346444 0.5273849 0.0144 -0.02556037 -2.999891 0 
0.02346444 0.5273849 -0.0231 -0.02556037 -2.999891 0 
-0.2028691 1.013706 -0.0856 0 0 -2 
0.02346444 0.5273849 -0.04185 -0.02556037 -2.999891 0 
-0.2180066 1.529479 -0.004350001 0.02555465 2.999892 0 
0.02542631 0.5245081 -0.08011249 -0.01704025 -1.999927 -2 
0.02346444 0.5273849 -0.06060001 -0.02556037 -2.999891 0 
0.1484599 0.5263199 -0.004350001 -0.02556038 -2.999891 0 
0.1484599 0.5263199 0.0144 -0.02556038 -2.999891 0 
0.1484599 0.5263199 -0.0231 -0.02556038 -2.999891 0 
0.2773882 0.5216312 -0.084 0 0 -2 
0.2241522 0.3771 0.116 0 0 3 
0.08207569 0.5216312 0.116 0 0 2 
0.2109577 0.5257874 -0.004350001 -0.02556037 -2.999891 0 
0.1133661 0.4825687 0.116 0 0 2 
0.2580414 0.3432458 0.116 0 0 3 
0.2109577 0.5257874 0.0144 -0.02556037 -2.999891 0 
0.2595616 0.7285057 0.035025 4.999818 -0.04260055 0 
0.2597708 0.7530583 0.01573928 6.999746 -0.05964088 0 
0.1179643 1.073475 -0.0856 0 0 -2 
0.2612923 0.9316234 -0.0856 0.707081 -0.006024626 -0.7071069 
0.1850338 1.151031 -0.0856 0 0 -1 
0.2619008 1.00305 -0.02176071 6.999746 -0.05963416 0 
-0.1505799 0.7320002 -0.0856 0 0 -2 
0.234375 0.5646 -0.0215 0 3 0 
-0.004855686 0.8713887 -0.0856 0 0 -1 
0.1876562 0.4135583 -0.084 0 0 -3 
-0.2382904 0.9827566 0.06877501 -4.999818 0.04260063 0 
0.2634223 1.181614 0.0144 2.999891 -0.02556033 0 
0.2623572 1.056619 0.0519 2.999891 -0.02555747 0 
0.2580252 0.3588708 -0.084 0 0 -3 
-0.2375935 0.563013 0.051475 -2.999891 4.02556 0 
0.2655523 1.431605 0.03315 2.999891 -0.02556033 0 
0.2655523 1.431605 0.0144 2.999891 -0.02556033 0 
-0.2402872 0.74839 0.0519 -2.999891 0.02556033 0 
-0.2404204 0.7327657 0.01674375 -3.999855 0.0340805 0 
-0.222666 0.9826235 0.1144 0 0 3 
-0.2402872 0.74839 0.03315 -2.999891 0.02556033 0 
-0.2381572 0.9983811 0.10815 -2.707008 0.02306485 0.7071069 
-0.2381572 0.9983811 0.07065 -2.999891 0.02556033 0 
-0.2392223 0.8733856 0.03315 -2.999891 0.02556033 0 
-0.2344297 1.435865 0.0144 -2.999891 0.02556042 0 
0.1694549 0.6980222 -0.0856 0 0 -2 
0.1345661 0.7295706 -0.0856 0 0 -3 
0.2606266 0.8535012 -0.02075625 3.999855 -0.0340805 0 
-0.109375 0.5646 0.05115625 0 4 0 
-0.007251938 0.5901489 -0.0856 0 0 -1 
0.02373069 0.5586338 -0.0856 0 0 -1 
0.1667313 0.5021 -0.084 0 0 -3 
-0.06841844 0.7469257 -0.0856 0 0 -1 
-0.006186937 0.7151444 -0.0856 0 0 -1 
0.1487262 0.5575688 -0.0856 0 0 -1 
-0.1298512 0.8724537 -0.0856 0 0 -1 
-0.1166685 1.044222 -0.0856 0 0 -2 
-0.1522228 0.9976489 -0.0856 0 0 -2 
0.359375 0.5646 -0.0215 0 3 0 
-0.003790685 0.9963842 -0.0856 0 0 -1 
-0.04422851 1.293615 -0.0856 0 0 -2 
0.02932194 1.21486 -0.0856 0 0 -1 
0.02905569 1.183611 -0.0856 0 0 -1 
0.03038695 1.339856 -0.0856 0 0 -1 
0.2579641 0.5410124 0.0519 2.999891 -0.02555751 0 
0.0301207 1.308607 -0.0856 0 0 -1 
-0.1134735 1.419209 0.1144 0 0 2 
0.03145195 1.464851 -0.0856 0 0 -1 
0.1528531 1.041926 -0.0856 0 0 -3 
0.04681014 1.433469 -0.0856 0 0 -1 
0.0311857 1.433602 -0.0856 0 0 -1 
0.1532525 1.0888 -0.0856 0 0 -1 
-0.009472901 1.246441 -0.0856 0 0 -2 
0.1543174 1.213795 -0.0856 0 0 -1 
-0.06563687 0.7677361 0.1144 0 0 3 
-0.007875401 1.433936 0.1144 0 0 2 
0.00832702 1.043157 0.1144 0 0 2 
-0.2265266 0.5295149 0.0894 -0.02556036 -2.999891 0 
-0.1350009 1.185009 0.1144 0 0 2 
-0.2063759 1.060613 0.1144 0 0 1 
-0.02736047 0.9809595 0.1144 0 0 3 
0.3464915 0.4317875 -0.084 0 0 -3 
-0.050664 0.9967837 0.1144 0 0 1 
-0.1279874 1.091196 0.1144 0 0 1 
-0.06575594 1.059415 0.1144 0 0 1 
0.349023 0.5021 -0.084 0 0 -3 
-0.06548969 1.090663 0.1144 0 0 1 
-0.02669484 1.059082 0.1144 0 0 2 
0.02745819 0.9961181 0.1144 0 0 1 
0.02612694 0.8398737 0.1144 0 0 1 
0.1525535 1.006771 0.1144 0 0 4 
0.1511225 0.8388087 0.1144 0 0 1 
0.1514885 0.8817759 0.1144 0 0 4 
0.1546924 0.5599125 -0.08024999 0 2.707107 -2.707107 
0.15625 0.5646 -0.0215 0 3 0 
-0.21875 0.5646 0.0535 0 3 0 
-0.359375 0.5646 -0.05665625 0 4 0 
-0.46875 0.5646 0.0535 0 3 0 
-0.1518235 1.044522 0.1144 0 0 3 
-0.09767046 0.9815586 0.1144 0 0 3 
-0.1312128 1.018304 0.1144 0 0 3 
-0.1131618 0.9973161 0.1144 0 0 1 
0.46875 0.5646 -0.04025 0 3 0 
0.2579283 0.4526208 0.116 0 0 3 
0.21875 0.5646 -0.0215 0 3 0 
0.21875 0.5646 -0.002750001 0 3 0 
0.34375 0.5646 -0.002750001 0 3 0 
0.1695374 0.3067875 -0.084 0 0 -3 
0.4207624 0.5612518 -0.07819643 0 4.707107 -2.707107 
-0.03125 0.5646 0.0535 0 3 0 
0.2019895 1.307142 -0.0856 0 0 -1 
-0.03125 0.5646 0.07225 0 3 0 
0.46875 0.5646 0.0535 0 3 0 
0.21875 0.5646 0.091 0 3 0 
-0.078125 0.5646 -0.004625001 0 5 0 
0.46875 0.5646 0.091 0 3 0 
-0.13278 0.5287162 -0.0856 -0.006024631 -0.7070807 -0.7071072 
0.1361188 0.2003422 -0.03907812 5.659779 -5.653927 0 
0.1349247 0.2008847 -0.07740277 5.245351 -5.239928 -2.414214 
-0.3622996 0.5597172 -0.07892187 0 4.707107 -3.707107 
-0.01134311 0.2013188 -0.084 0 0 -2 
-0.4872085 0.5574977 0.05179546 -4.947189 -0.9523041 0 
-0.01065526 0.07576071 0.05216071 -4.947188 -4.952305 0 
0.3829121 0.4682458 0.116 0 0 3 
0.1136407 0.2169438 0.116 0 0 2 
0.015625 0.5646 0.032875 0 5 0 
0.382896 0.4838708 0.116 0 0 3 
0.1877854 0.2885583 0.116 0 0 3 
0.1346538 1.198337 0.1144 0 0 2 
-0.1677385 0.3419437 0.116 0 0 2 
-0.2224826 0.3966312 0.116 0 0 2 
0.04427892 0.5567875 0.116 0 0.7071068 2.707107 
-0.2265266 0.5295149 -0.0231 -0.02556037 -2.999891 0 
0.1329121 0.4682458 0.116 0 0 3 
0.1876562 0.4135583 0.116 0 0 3 
0.2384953 0.3575687 0.116 0 0 2 
0.2580252 0.3588708 0.116 0 0 3 
-0.02597704 0.5021 0.116 0 0 3 
-0.06247307 0.5385583 0.116 0 0 3 
-0.2224098 0.3263187 0.116 0 0 2 
-0.296875 0.5646 -0.038375 0 5 0 
-0.1507186 0.2521 0.116 0 0 3 
-0.4557211 0.5567875 0.116 0 0.7071068 2.707107 
-0.3866339 0.4825687 0.116 0 0 2 
-0.3123438 0.4135583 0.116 0 0 3 
-0.2419586 0.3432458 0.116 0 0 3 
-0.08033333 0.1817875 0.116 0 0 3 
-0.01124618 0.1075687 0.116 0 0 2 
-0.005152258 1.142235 0.1144 0 0 3 
-0.1508478 0.3771 0.116 0 0 3 
-0.1873438 0.4135583 0.116 0 0 3 
0.1669677 1.323066 0.1144 0 0 2 
0.2059958 0.3067875 0.116 0 0 3 
0.06278542 0.2885583 0.116 0 0 3 
0.08099575 0.3067875 0.116 0 0 3 
0.2648866 1.353483 -0.039975 4.999818 -0.04260055 0 
0.2401187 1.197439 0.1144 0 0 3 
0.2654192 1.415981 0.01674375 3.999855 -0.03408056 0 
0.1331707 0.2182458 0.116 0 0 3 
0.1331545 0.2338708 0.116 0 0 3 
-0.275977 0.5021 0.116 0 0 3 
-0.06221457 0.2885583 0.116 0 0 3 
0.2025675 0.9164982 0.1144 0 0 2 
-0.04253657 0.1466313 0.116 0 0 2 
-0.2758478 0.3771 0.116 0 0 3 
-0.4179243 0.5216312 0.116 0 0 2 
-0.1872146 0.2885583 0.116 0 0 3 
-0.3475391 0.4513187 0.116 0 0 2 
-0.1168294 0.2182458 0.116 0 0 3 
-0.400977 0.5021 0.116 0 0 3 
-0.06208532 0.1635583 0.116 0 0 3 
-0.400977 0.5021 -0.084 0 0 -3 
-0.06208532 0.1635583 -0.084 0 0 -3 
-0.2386898 0.9358833 -0.0856 -0.707081 0.006024626 -0.7071069 
-0.2381572 0.9983811 -0.0231 -2.999891 0.02556033 0 
-0.3475391 0.4513187 -0.084 0 0 -2 
-0.1168294 0.2182458 -0.084 0 0 -3 
-0.09728061 0.2013188 -0.084 0 0 -2 
0.234375 0.5646 0.05115625 0 4 0 
-0.2054626 0.3067875 -0.084 0 0 -3 
-0.2615047 0.3575687 -0.084 0 0 -2 
-0.3670879 0.4682458 -0.084 0 0 -3 
0.07810449 0.9800609 0.1144 0 0 2 
-0.4179243 0.5216312 -0.084 0 0 -2 
-0.2758478 0.3771 -0.084 0 0 -3 
-0.04253657 0.1466313 -0.084 0 0 -2 
-0.1872146 0.2885583 -0.084 0 0 -3 
-0.275977 0.5021 -0.084 0 0 -3 
-0.06221457 0.2885583 -0.084 0 0 -3 
0.2638216 1.228488 0.01674375 3.999855 -0.03408044 0 
0.1331545 0.2338708 -0.084 0 0 -3 
-0.2069084 0.9981148 0.1144 0 0 1 
0.06278542 0.2885583 -0.084 0 0 -3 
-0.02597704 0.5021 -0.084 0 0 -3 
-0.06247307 0.5385583 -0.084 0 0 -3 
-0.223377 1.357643 -0.0856 0 0 -2 
0.009304378 0.6993868 -0.0856 0 0 -3 
0.1332349 0.5733263 -0.0856 0 0 -3 
0.2944082 0.4317875 -0.084 0 0 -3 
-0.224442 1.232648 -0.0856 0 0 -2 
0.1329121 0.4682458 -0.084 0 0 -3 
0.006463269 0.8244157 0.1144 0 0 2 
-0.02558436 0.7309352 -0.0856 0 0 -2 
0.1681236 0.5417779 -0.0856 0 0 -2 
0.2569284 0.5722724 0.1076292 4.706936 -0.04010515 1.707107 
0.09782992 0.3966312 0.116 0 0 2 
-0.1314487 0.6849605 0.1144 0 0 1 
0.1875269 0.5385583 -0.084 0 0 -3 
0.3633661 0.4825687 -0.084 0 0 -2 
0.04632311 0.9178294 0.1144 0 0 2 
-0.151291 1.10702 0.1144 0 0 3 
0.3829121 0.4682458 -0.084 0 0 -3 
0.4542446 0.5612518 -0.07819642 0 4.707107 -2.707107 
0.1569799 1.526284 -0.076225 0.01704407 1.999927 0 
-0.2338972 1.498363 0.0519 -2.999891 0.02556033 0 
0.1569799 1.526284 -0.06060001 0.0255661 2.999891 0 
0.1569799 1.526284 -0.04185 0.0255661 2.999891 0 
-0.2353616 1.326494 -0.002475002 -4.999818 0.04260055 0 
0.03198445 1.527349 -0.076225 0.01704406 1.999927 0 
-0.03051331 1.527881 -0.076225 0.01703643 1.999928 0 
-0.2065966 0.5762218 0.1144 0 0 2 
0.0809456 0.8550322 0.1144 0 0 3 
-0.1555088 1.528946 -0.076225 0.01703644 1.999928 0 
-0.1555088 1.528946 -0.0231 0.02555466 2.999892 0 
-0.2180066 1.529479 -0.0231 0.02555465 2.999892 0 
-0.03051331 1.527881 0.0144 0.02555465 2.999892 0 
-0.2053109 1.185608 -0.0856 0 0 -1 
-0.03051331 1.527881 0.03315 0.02555465 2.999892 0 
0.0802345 1.230052 -0.0856 0 0 -2 
-0.09301106 1.528414 0.0144 0.02556609 2.999891 0 
-0.09301106 1.528414 0.0519 0.02556609 2.999891 0 
-0.2180066 1.529479 0.0519 0.02555465 2.999892 0 
-0.2196223 1.523242 0.11065 0.02305971 2.707008 2.707108 
0.1882288 1.526018 -0.04185 0.02555465 2.999892 0 
-0.1868242 1.521401 0.111275 0.02307005 2.707008 3.707107 
-0.06182874 1.520336 0.111275 0.02305973 2.70701 3.707106 
0.1882288 1.526018 0.0519 0.02555465 2.999892 0 
0.1484599 0.5263199 0.0894 -0.02556038 -2.999891 0 
0.1512356 0.3771 -0.084 0 0 -3 
0.1484599 0.5263199 0.07065 -0.02556038 -2.999891 0 
0.02346444 0.5273849 0.0894 -0.02556037 -2.999891 0 
0.02623555 0.3771 -0.084 0 0 -3 
0.02346444 0.5273849 0.07065 -0.02556037 -2.999891 0 
0.2918606 0.3771 0.116 0 0 3 
0.0859622 0.5268524 0.0519 -0.02556037 -2.999891 0 
0.02346444 0.5273849 0.03315 -0.02556037 -2.999891 0 
-0.2249109 0.5357514 0.11065 -0.02306488 -2.707008 2.707107 
-0.1640288 0.5289824 0.0519 -0.02556038 -2.999891 0 
-0.2265266 0.5295149 0.0519 -0.02556037 -2.999891 0 
-0.2265266 0.5295149 0.03315 -0.02556037 -2.999891 0 
-0.2223997 1.013872 0.1144 0 0 3 
-0.2265266 0.5295149 0.0144 -0.02556037 -2.999891 0 
0.453125 0.5646 -0.05665625 0 4 0 
-0.2265266 0.5295149 -0.04185 -0.02556037 -2.999891 0 
0.1172111 0.5265862 0.0519 -0.02556037 -2.999891 0 
0.2422066 0.5255212 0.0519 -0.02556038 -2.999891 0 
-0.046875 0.5646 -0.004625001 0 5 0 
-0.007784438 0.5276512 -0.004350001 -0.02556037 -2.999891 0 
-0.13278 0.5287162 -0.04185 -0.02556037 -2.999891 0 
-0.04391678 0.8717215 -0.0856 0 0 -2 
0.2422066 0.5255212 -0.0231 -0.02556038 -2.999891 0 
0.2579283 0.4526208 -0.084 0 0 -3 
0.2612923 0.9316234 0.0144 2.999891 -0.02556033 0 
-0.1168471 1.48174 0.1144 0 0 3 
0.2608263 0.8769379 0.0519 5.999782 -0.0511207 0 
0.296875 0.5646 0.032875 0 5 0 
0.2618913 1.001934 0.0519 5.999782 -0.05111498 0 
0.02767896 1.480509 -0.0856 0 0 -2 
0.2595616 0.7285057 -0.039975 4.999818 -0.04260055 0 
0.2454016 0.9005077 0.1144 0 0 1 
0.2599805 0.8795494 0.1078028 7.413944 -0.06316999 2.414214 
0.1882743 1.072875 0.1144 0 0 2 
0.1225361 1.151564 0.1144 0 0 1 
0.2610455 1.004545 0.1078028 7.413945 -0.06316292 2.414214 
0.264038 1.253878 -0.003178127 7.99971 -0.06816103 0 
0.2640309 1.253041 0.01573929 6.999746 -0.05964089 0 
0.265103 1.378873 -0.04067812 7.99971 -0.06816103 0 
0.2640309 1.253041 0.08806071 6.999746 -0.0596409 0 
0.2661735 1.50452 -0.07570416 5.999782 -0.05111507 0 
0.2661609 1.503032 -0.05926072 6.999746 -0.05963422 0 
0.09690877 1.505962 0.1144 0 0 3 
0.2661609 1.503032 -0.02176071 6.999746 -0.05963422 0 
0.266168 1.503869 -0.003178127 7.99971 -0.0681534 0 
0.2661609 1.503032 0.01573929 6.999746 -0.05963422 0 
0.264038 1.253878 0.06947813 7.99971 -0.06816103 0 
0.2631755 1.254536 0.1078028 7.413944 -0.06317006 2.414214 
0.2650864 1.37692 0.0519 5.999782 -0.05112075 0 
0.266168 1.503869 0.03432187 7.99971 -0.0681534 0 
0.2661513 1.501915 0.0519 5.999782 -0.05111503 0 
0.266168 1.503869 0.06947813 7.99971 -0.0681534 0 
0.2661609 1.503032 0.08806071 6.999746 -0.05963422 0 
0.2626185 1.504076 0.1090023 7.413945 -0.06316299 4.414214 
-0.2386898 0.9358833 0.10815 -2.707008 0.02306484 0.7071069 
-0.2365597 1.185874 0.0519 -2.999891 0.02556033 0 
-0.2360272 1.248372 0.0519 -2.999891 0.02556033 0 
-0.2360272 1.248372 0.03315 -2.999891 0.02556033 0 
-0.2360272 1.248372 0.0144 -2.999891 0.02556033 0 
-0.06349281 1.32503 0.1144 0 0 3 
0.01396376 1.246242 0.1144 0 0 1 
-0.2338972 1.498363 0.10815 -2.707009 0.02306485 0.7071067 
-0.2338972 1.498363 0.0894 -2.999891 0.02556033 0 
-0.2338972 1.498363 0.07065 -2.999891 0.02556033 0 
-0.2349623 1.373368 0.03315 -2.999891 0.02556033 0 
-0.2349623 1.373368 0.0144 -2.999891 0.02556033 0 
-0.06442469 1.215659 -0.0856 0 0 -1 
-0.2338972 1.498363 0.0144 -2.999891 0.02556033 0 
-0.2360272 1.248372 -0.0606 -2.999891 0.02556033 0 
-0.2358941 1.263996 0.08705625 -3.999855 0.03407867 0 
0.151655 0.9013064 0.1144 0 0 1 
-0.2349623 1.373368 -0.0231 -2.999891 0.02556033 0 
-0.2338972 1.498363 -0.004350001 -2.999891 0.02556033 0 
-0.2338972 1.498363 -0.0231 -2.999891 0.02556033 0 
-0.2338972 1.498363 -0.0606 -2.999891 0.02556033 0 
0.1489924 0.5888176 -0.0856 0 0 -1 
0.02506194 0.7148781 -0.0856 0 0 -1 
0.02704477 0.6419418 -0.0856 0 0 -3 
0.0864947 0.5893501 -0.0856 0 0 -1 
0.2432716 0.6505166 -0.0856 0 0 -1 
0.08054623 0.8081588 -0.0856 0 0 -2 
0.02586069 0.8086247 -0.0856 0 0 -1 
0.2427391 0.5880189 -0.0856 0 0 -1 
0.02612694 0.8398736 -0.0856 0 0 -1 
0.02692569 0.9336202 -0.0856 0 0 -1 
-0.007784438 0.5276512 -0.0856 -0.006024634 -0.7070808 -0.7071071 
-0.03876707 0.5591663 -0.0856 0 0 -1 
-0.006764919 1.105788 0.1144 0 0 2 
0.04361513 1.058483 0.1144 0 0 1 
-0.1672693 0.6071379 -0.0856 0 0 -2 
-0.2262603 0.5607638 -0.0856 0 0 -1 
-0.2259941 0.5920126 -0.0856 0 0 -1 
0.2057625 1.291484 -0.0856 0 0 -2 
0.081832 1.417545 -0.0856 0 0 -2 
-0.2106359 0.5606307 -0.0856 0 0 -1 
-0.2085059 0.8106216 -0.0856 0 0 -1 
-0.08124726 1.075172 -0.0856 0 0 -3 
-0.2230653 0.9357502 -0.0856 0 0 -1 
-0.2074409 0.9356171 -0.0856 0 0 -1 
0.02746088 0.4513187 -0.084 0 0 -2 
-0.2063759 1.060613 -0.0856 0 0 -1 
-0.1571063 1.341453 -0.0856 0 0 -1 
-0.09971279 1.200334 -0.0856 0 0 -2 
-0.1346015 1.231882 -0.0856 0 0 -3 
-0.2042459 1.310603 -0.0856 0 0 -1 
-0.2188053 1.435732 -0.0856 0 0 -1 
-0.05985295 1.293748 -0.0856 0 0 -2 
-0.2031809 1.435599 -0.0856 0 0 -1 
0.1530165 0.755456 -0.0856 0 0 -3 
0.1813063 0.7135469 -0.0856 0 0 -1 
0.04308263 0.9959848 -0.0856 0 0 -1 
-0.2252408 1.138901 0.1144 0 0 2 
-0.08191288 0.9970499 0.1144 0 0 1 
0.2061541 0.8789662 -0.0856 0 0 -5 
0.2448691 0.8380099 -0.0856 0 0 -1 
-0.07978287 1.247041 -0.0856 0 0 -1 
-0.2026484 1.498097 -0.0856 0 0 -1 
0.1508562 0.8075597 0.1144 0 0 1 
0.2438041 0.7130144 0.1144 0 0 1 
-0.1401506 1.497564 -0.0856 0 0 -1 
-0.116714 1.497365 -0.0856 0 0 -2 
-0.01515512 1.496499 -0.0856 0 0 -1 
-0.2360272 1.248372 -0.0856 -0.7070813 0.006024629 -0.7071067 
0.00828154 1.4963 -0.0856 0 0 -2 
0.1885254 1.255172 -0.0856 0 0 -3 
0.1855663 1.213529 -0.0856 0 0 -1 
0.04482731 1.506405 -0.0856 0 0 -3 
0.06306692 1.507552 -0.0856 0 0 -4 
0.1125332 1.505828 -0.0856 0 0 -3 
0.133357 1.504609 -0.0856 0 0 -5 
0.1698228 1.50534 -0.0856 0 0 -3 
0.1880624 1.506487 -0.0856 0 0 -4 
0.2583524 1.503544 -0.0856 1.414162 -0.01204793 -4.414214 
0.2219043 1.504897 0.1144 0 0 3 
-0.1303837 0.809956 -0.0856 0 0 -1 
0.1541984 1.505473 0.1144 0 0 3 
0.06200192 1.382557 0.1144 0 0 4 
0.1564474 1.463786 0.1144 0 0 1 
0.1698228 1.50534 0.1144 0 0 3 
0.1125332 1.505828 0.1144 0 0 3 
0.03178476 1.503912 0.1144 0 0 2 
-0.1134735 1.419209 -0.0856 0 0 -2 
0.03145195 1.464851 0.1144 0 0 1 
0.04482731 1.506405 0.1144 0 0 3 
0.0306532 1.371104 0.1144 0 0 1 
0.03038695 1.339856 0.1144 0 0 1 
0.02958819 1.246109 0.1144 0 0 1 
-0.04422851 1.293615 0.1144 0 0 2 
0.02932194 1.21486 0.1144 0 0 1 
0.02825694 1.089865 0.1144 0 0 1 
-0.01515512 1.496499 0.1144 0 0 1 
-0.09327731 1.497165 0.1144 0 0 1 
-0.1557751 1.497697 0.1144 0 0 1 
-0.2182728 1.49823 0.1144 0 0 1 
-0.2026484 1.498097 0.1144 0 0 1 
-0.06038545 1.23125 0.1144 0 0 2 
-0.2037134 1.373101 0.1144 0 0 1 
0.2240229 0.5021 0.116 0 0 3 
-0.1579051 1.247706 0.1144 0 0 1 
-0.2204028 1.248239 0.1144 0 0 1 
-0.2047784 1.248106 0.1144 0 0 1 
-0.2217341 1.091995 0.1144 0 0 1 
-0.2058434 1.12311 0.1144 0 0 1 
-0.04255272 0.1622563 0.116 0 0 2 
-0.4022993 0.5216312 0.116 0 0 2 
-0.09886856 0.8409386 0.1144 0 0 1 
-0.2079734 0.8731194 0.1144 0 0 1 
-0.2259941 0.5920126 0.1144 0 0 1 
-0.1352217 0.7006182 0.1144 0 0 2 
-0.08275711 1.356445 0.1144 0 0 2 
-0.2101034 0.6231284 0.1144 0 0 1 
0.1866313 1.338524 0.1144 0 0 1 
-0.1522684 1.450791 0.1144 0 0 2 
0.07757199 0.9175631 -0.0856 0 0 -2 
-0.3319868 0.5216312 -0.084 0 0 -2 
-0.04262543 0.2325688 -0.084 0 0 -2 
0.05950582 1.089598 0.1144 0 0 1 
-0.3124138 0.4812666 -0.084 0 0 -3 
0.09710255 0.9173967 -0.0856 0 0 -3 
-0.0830102 0.2521 -0.084 0 0 -3 
0.1718511 0.9792621 -0.0856 0 0 -2 
0.2467328 1.056752 -0.0856 0 0 -1 
0.1220036 1.089066 0.1144 0 0 1 
0.1197545 1.130753 0.1144 0 0 3 
0.1842351 1.057285 0.1144 0 0 1 
0.359375 0.5646 0.1058438 0 4 0 
-0.004323185 0.9338865 0.1144 0 0 1 
-0.06788594 0.8094234 0.1144 0 0 1 
-0.06761969 0.8406724 0.1144 0 0 1 
0.2057625 1.291484 0.1144 0 0 2 
0.081832 1.417545 0.1144 0 0 2 
-0.2046272 0.5638061 0.107555 0 4 1 
0.187297 1.416647 0.1144 0 0 3 
-0.1322474 0.5912139 0.1144 0 0 1 
0.2456678 0.9317565 0.1144 0 0 1 
0.241555 0.7547018 0.1144 0 0 3 
0.1176245 0.8807623 0.1144 0 0 3 
0.1821051 0.8072935 0.1144 0 0 1 
0.1193411 0.7765771 0.1144 0 0 1 
0.2044767 0.6820983 0.1144 0 0 2 
0.1823713 0.8385424 0.1144 0 0 1 
0.1497912 0.6825643 0.1144 0 0 1 
0.1188086 0.7140794 0.1144 0 0 1 
-0.169224 1.29468 -0.0856 0 0 -2 
0.02479569 0.6836293 0.1144 0 0 1 
0.1177436 0.5890839 0.1144 0 0 1 
0.2659517 1.478479 -0.02075625 3.999855 -0.03408044 0 
0.02586069 0.8086247 0.1144 0 0 1 
0.2427391 0.5880189 0.1144 0 0 1 
0.02623555 0.3771 0.116 0 0 3 
-0.06457186 0.8927316 -0.0856 0 0 -3 
-0.06788594 0.8094234 -0.0856 0 0 -1 
0.09477878 1.255971 -0.0856 0 0 -3 
0.1513432 1.3232 -0.0856 0 0 -2 
0.07915433 1.256104 -0.0856 0 0 -3 
0.223163 1.041327 -0.0856 0 0 -3 
-0.1934139 0.7479907 0.1144 0 0 1 
0.07592902 1.183212 -0.0856 0 0 -1 
0.04738812 1.042825 0.1144 0 0 2 
0.1561812 1.432537 0.1144 0 0 1 
-0.09593982 1.184676 0.1144 0 0 1 
0.1513648 0.2521 -0.084 0 0 -3 
-0.06244187 1.142723 0.1144 0 0 3 
-0.048534 1.246775 0.1144 0 0 1 
0.2383984 0.4513187 0.116 0 0 2 
0.2930536 0.4825687 0.116 0 0 2 
0.2031 0.9789959 -0.0856 0 0 -2 
-0.3319868 0.5216312 0.116 0 0 2 
-0.04262543 0.2325688 0.116 0 0 2 
-0.296875 0.5646 0.05115625 0 4 0 
-0.3652242 0.5548344 0.116 0 0.7071068 3.707107 
-0.01134311 0.2013188 0.116 0 0 2 
0.0263648 0.2521 0.116 0 0 3 
0.0263648 0.2521 -0.084 0 0 -3 
-0.08172832 0.2716312 -0.084 0 0 -2 
-0.2928839 0.4825687 -0.084 0 0 -2 
0.2240229 0.5021 -0.084 0 0 -3 
0.08339796 0.5021 0.116 0 0 3 
0.2761063 0.5021 -0.084 0 0 -3 
0.2383984 0.4513187 -0.084 0 0 -2 
0.1133095 0.5372562 0.116 0 0 2 
0.1681424 0.3966312 -0.084 0 0 -2 
-0.1699773 0.7477911 -0.0856 0 0 -2 
0.1681236 0.5417779 0.1144 0 0 2 
0.2543243 0.5722946 -0.0856 0.7070811 -0.006024639 -1.707107 
0.006463269 0.8244156 -0.0856 0 0 -2 
-0.02558436 0.7309352 0.1144 0 0 2 
0.09649149 0.4317875 -0.084 0 0 -3 
-0.1314487 0.6849605 -0.0856 0 0 -1 
-0.2214678 1.123243 -0.0856 0 0 -1 
-0.174062 1.185342 -0.0856 0 0 -1 
-0.1735295 1.247839 -0.0856 0 0 -1 
-0.1579051 1.247706 -0.0856 0 0 -1 
0.1514885 0.8817758 -0.0856 0 0 -4 
-0.06292702 1.391434 -0.0856 0 0 -4 
-0.047469 1.37177 -0.0856 0 0 -1 
0.155915 1.401288 -0.0856 0 0 -1 
0.09639141 1.292416 0.1144 0 0 2 
0.02751743 0.3966312 -0.084 0 0 -2 
0.2643541 1.290985 -0.05825625 3.999855 -0.03408056 0 
0.1871638 1.401022 -0.0856 0 0 -1 
0.2052148 1.380034 -0.0856 0 0 -3 
0.1524082 1.448195 0.1144 0 0 2 
0.08021934 1.381099 0.1144 0 0 3 
-0.1724645 1.372835 0.1144 0 0 1 
-0.1540585 1.393512 0.1144 0 0 3 
-0.1573726 1.310204 0.1144 0 0 1 
-0.2372254 1.107752 0.01674375 -3.999855 0.03408044 0 
0.2601234 0.947259 0.1076292 4.706936 -0.04010515 1.707107 
0.2584966 0.6035101 0.01674375 3.999855 -0.0340805 0 
0.2611592 0.9159988 0.06877501 4.999818 -0.04260063 0 
-0.1694448 0.8102889 0.1144 0 0 2 
0.2383095 0.5372562 -0.084 0 0 -2 
-0.1298512 0.8724537 0.1144 0 0 1 
-0.09380981 1.434667 0.1144 0 0 1 
0.1540512 1.182546 0.1144 0 0 1 
0.2475316 1.150499 0.1144 0 0 1 
0.09915223 0.3771 0.116 0 0 3 
0.2009245 1.182147 0.1144 0 0 1 
0.2041499 1.255039 0.1144 0 0 3 
0.1885254 1.255172 0.1144 0 0 3 
-0.04255272 0.1622563 -0.084 0 0 -2 
0.04525811 0.7928339 0.1144 0 0 2 
-0.08195836 1.450192 0.1144 0 0 2 
-0.4022993 0.5216312 -0.084 0 0 -2 
0.2233416 0.6038097 0.1144 0 0 2 
-0.2198703 1.310737 0.1144 0 0 1 
-0.09795076 0.643007 0.1144 0 0 3 
-0.06841844 0.7469257 0.1144 0 0 1 
0.02610629 0.5021 0.116 0 0 3 
0.1330576 0.3276208 0.116 0 0 3 
0.1681828 0.3575687 0.116 0 0 2 
0.1512356 0.3771 0.116 0 0 3 
0.02610629 0.5021 -0.084 0 0 -3 
0.359375 0.5646 0.01365625 0 4 0 
-0.1122996 0.5597172 -0.07892187 0 4.707107 -3.707107 
-0.01160161 0.4513187 -0.084 0 0 -2 
0.1153895 1.229752 0.1144 0 0 3 
-0.2406866 0.7015169 -0.07544375 -3.999855 0.03408051 0 
0.1330576 0.3276208 -0.084 0 0 -3 
0.06284466 0.2312667 0.116 0 0 3 
0.08365647 0.2521 0.116 0 0 3 
0.3477007 0.5216312 0.116 0 0 2 
0.3633095 0.5372562 0.116 0 0 2 
-0.1756595 0.9978486 -0.0856 0 0 -1 
0.00859327 1.074407 -0.0856 0 0 -2 
0.06293083 0.1479333 -0.084 0 0 -3 
-0.1293187 0.9349514 -0.0856 0 0 -1 
0.02609662 1.141968 -0.0856 0 0 -3 
-0.01164839 1.449593 0.1144 0 0 2 
0.07486401 1.058216 -0.0856 0 0 -1 
0.0306532 1.371104 -0.0856 0 0 -1 
0.1524082 1.448195 -0.0856 0 0 -2 
0.08021934 1.381099 -0.0856 0 0 -3 
0.1510034 1.130487 -0.0856 0 0 -3 
0.006197019 0.7931667 -0.0856 0 0 -2 
0.2230754 0.5725608 -0.0856 0 0 -2 
0.2030848 1.130043 -0.0856 0 0 -3 
0.1998595 1.057151 -0.0856 0 0 -1 
-0.047469 1.37177 0.1144 0 0 1 
-0.134069 1.29438 0.1144 0 0 3 
-0.02906299 1.392447 0.1144 0 0 3 
-0.1185323 0.8254806 0.1144 0 0 2 
-0.06137687 1.267718 0.1144 0 0 3 
-0.03237706 1.309139 0.1144 0 0 1 
0.2595616 0.7285057 0.06877501 4.999818 -0.04260055 0 
-0.2209353 1.185741 0.1144 0 0 1 
-0.1745945 1.122844 0.1144 0 0 1 
-0.2255071 1.107653 0.1144 0 0 2 
0.2590291 0.6660079 0.06877501 4.999818 -0.04260063 0 
-0.175127 1.060346 0.1144 0 0 1 
-0.049599 1.121779 0.1144 0 0 1 
-0.0501315 1.059281 0.1144 0 0 1 
0.02692569 0.9336203 0.1144 0 0 1 
-0.2929405 0.5372562 -0.084 0 0 -2 
-0.02704082 0.2716312 -0.084 0 0 -2 
0.2020198 1.005048 0.1144 0 0 3 
0.3619873 0.5567875 0.116 0 0.7071068 2.707107 
0.349023 0.5021 0.116 0 0 3 
0.4011063 0.5021 0.116 0 0 3 
0.1119873 0.5567875 0.116 0 0.7071068 2.707107 
0.09902295 0.5021 0.116 0 0 3 
-0.2372254 1.107752 0.035025 -4.999818 0.04260055 0 
0.2614254 0.9472479 0.08705625 3.999855 -0.03408051 0 
0.2584966 0.6035101 0.035025 4.999818 -0.04260063 0 
0.2371165 0.4317875 0.116 0 0 3 
0.009304378 0.6993868 0.1144 0 0 3 
0.1332349 0.5733263 0.1144 0 0 3 
-0.223377 1.357643 0.1144 0 0 2 
0.2931424 0.3966312 0.116 0 0 2 
-0.2414854 0.6077702 0.035025 -4.999818 0.04260063 0 
-0.2385566 0.9515078 0.08705625 -3.999855 0.03408051 0 
0.2627566 1.103492 0.035025 4.999818 -0.04260055 0 
-0.1377542 0.3067875 0.116 0 0 3 
-0.2628835 0.4317875 0.116 0 0 3 
0.1122458 0.3067875 0.116 0 0 3 
0.1513648 0.2521 0.116 0 0 3 
0.02649405 0.1271 0.116 0 0 3 
0.02649405 0.1271 -0.084 0 0 -3 
-0.2628835 0.4317875 -0.084 0 0 -3 
-0.1377542 0.3067875 -0.084 0 0 -3 
0.08233419 0.2716312 -0.084 0 0 -2 
0.1682717 0.2716312 -0.084 0 0 -2 
0.2931424 0.3966312 -0.084 0 0 -2 
-0.06895094 0.684428 -0.0856 0 0 -1 
0.09902295 0.5021 -0.084 0 0 -3 
0.4011063 0.5021 -0.084 0 0 -3 
0.0811586 0.8800312 -0.0856 0 0 -5 
0.2030545 1.432138 -0.0856 0 0 -1 
-0.06220372 0.559366 -0.0856 0 0 -2 
-0.2232317 0.9162197 -0.0856 0 0 -4 
-0.1895674 0.8937966 -0.0856 0 0 -3 
0.2383095 0.5372562 0.116 0 0 2 
0.2614254 0.9472479 -0.02075625 3.999855 -0.0340805 0 
-0.1689123 0.8727865 -0.0856 0 0 -2 
-0.06575594 1.059414 -0.0856 0 0 -1 
-0.0501315 1.059281 -0.0856 0 0 -1 
-0.2066876 1.482506 0.1144 0 0 2 
-0.09889889 1.143033 -0.0856 0 0 -3 
-0.06244187 1.142723 -0.0856 0 0 -3 
-0.049599 1.121779 -0.0856 0 0 -1 
-0.2255071 1.107653 -0.0856 0 0 -2 
-0.175127 1.060346 -0.0856 0 0 -1 
-0.00809617 0.9495442 -0.0856 0 0 -2 
0.2216532 1.3226 -0.0856 0 0 -2 
-0.2237169 1.164931 -0.0856 0 0 -3 
0.00752827 0.949411 -0.0856 0 0 -2 
-0.1874374 1.143788 -0.0856 0 0 -3 
-0.2193378 1.373234 -0.0856 0 0 -1 
0.04445937 0.6990873 -0.0856 0 0 -2 
0.1335011 0.6045752 -0.0856 0 0 -3 
-0.2217644 1.394089 -0.0856 0 0 -3 
-0.1879225 1.392499 -0.0856 0 0 -4 
-0.1724645 1.372835 -0.0856 0 0 -1 
-0.332003 0.5372562 -0.084 0 0 -2 
-0.02700043 0.2325688 -0.084 0 0 -2 
0.07379901 0.9332208 -0.0856 0 0 -1 
-0.2417516 0.5765213 0.01674375 -3.999855 0.03408044 0 
-0.3123277 0.3979333 0.116 0 0 3 
-0.1663436 0.2521 0.116 0 0 3 
0.07702433 1.006112 -0.0856 0 0 -3 
-0.3123276 0.3979333 -0.084 0 0 -3 
-0.1663436 0.2521 -0.084 0 0 -3 
0.1987945 0.9321558 -0.0856 0 0 -1 
0.2456678 0.9317565 -0.0856 0 0 -1 
-0.048534 1.246775 -0.0856 0 0 -1 
-0.03290956 1.246641 -0.0856 0 0 -1 
-0.171932 1.435333 -0.0856 0 0 -1 
-0.1540585 1.393512 -0.0856 0 0 -3 
-0.1713995 1.497831 -0.0856 0 0 -1 
-0.1557751 1.497697 -0.0856 0 0 -1 
-0.0469365 1.434268 -0.0856 0 0 -1 
-0.134069 1.29438 -0.0856 0 0 -3 
-0.02906299 1.392447 -0.0856 0 0 -3 
-0.046404 1.496766 -0.0856 0 0 -1 
-0.03077956 1.496633 -0.0856 0 0 -1 
0.2475316 1.150499 -0.0856 0 0 -1 
0.2009245 1.182147 -0.0856 0 0 -1 
0.2041499 1.255039 -0.0856 0 0 -3 
0.2197743 1.254906 -0.0856 0 0 -3 
0.07805902 1.433203 -0.0856 0 0 -1 
0.08128434 1.506095 -0.0856 0 0 -3 
0.09690877 1.505962 -0.0856 0 0 -3 
0.2062799 1.50503 -0.0856 0 0 -3 
0.2219043 1.504897 -0.0856 0 0 -3 
0.1880624 1.506487 0.1144 0 0 4 
0.2062799 1.50503 0.1144 0 0 3 
0.155915 1.401288 0.1144 0 0 1 
0.09639141 1.292416 -0.0856 0 0 -2 
0.02878316 0.4317875 0.116 0 0 3 
0.1871638 1.401022 0.1144 0 0 1 
0.06306691 1.507552 0.1144 0 0 4 
0.08128433 1.506095 0.1144 0 0 3 
0.0311857 1.433602 0.1144 0 0 1 
0.2208544 1.228854 0.1144 0 0 2 
0.06216832 1.402087 0.1144 0 0 1 
0.07805902 1.433203 0.1144 0 0 1 
0.0635299 1.256237 0.1144 0 0 3 
0.1513432 1.3232 0.1144 0 0 2 
0.07915433 1.256104 0.1144 0 0 3 
0.02905569 1.183611 0.1144 0 0 1 
0.02609662 1.141968 0.1144 0 0 3 
-0.046404 1.496766 0.1144 0 0 1 
-0.09676889 1.393024 0.1144 0 0 3 
-0.06292702 1.391434 0.1144 0 0 4 
-0.0469365 1.434268 0.1144 0 0 1 
-0.1870239 1.497964 0.1144 0 0 1 
-0.1713995 1.497831 0.1144 0 0 1 
-0.2188053 1.435732 0.1144 0 0 1 
0.1335011 0.6045752 0.1144 0 0 3 
0.04445937 0.6990873 0.1144 0 0 2 
-0.2217644 1.394089 0.1144 0 0 3 
-0.1879225 1.392499 0.1144 0 0 4 
-0.171932 1.435333 0.1144 0 0 1 
-0.1891539 1.247973 0.1144 0 0 1 
-0.1735295 1.24784 0.1144 0 0 1 
0.00752827 0.9494112 0.1144 0 0 2 
-0.01156122 0.4122562 0.116 0 0 2 
-0.1536377 0.5567875 0.116 0 0.7071068 2.707107 
-0.1874374 1.143788 0.1144 0 0 3 
-0.06457186 0.8927317 0.1144 0 0 3 
-0.02789297 0.9184618 0.1144 0 0 3 
-0.0511965 0.9342859 0.1144 0 0 1 
0.06280159 0.2729333 -0.084 0 0 -3 
-0.1756595 0.9978486 0.1144 0 0 1 
-0.08124726 1.075172 0.1144 0 0 3 
-0.2230653 0.9357502 0.1144 0 0 1 
-0.1895674 0.8937966 0.1144 0 0 3 
0.06293083 0.1479333 0.116 0 0 3 
-0.176192 0.9353508 0.1144 0 0 1 
0.2052148 1.380034 0.1144 0 0 3 
0.06461006 1.230185 0.1144 0 0 2 
0.015625 0.5646 0.05115625 0 4 0 
0.1394918 1.307675 0.1144 0 0 1 
0.2184127 1.400756 0.1144 0 0 1 
0.07808933 1.131108 0.1144 0 0 3 
0.2230754 0.5725609 0.1144 0 0 2 
0.006197019 0.7931668 0.1144 0 0 2 
0.2030848 1.130043 0.1144 0 0 3 
0.1998595 1.057151 0.1144 0 0 1 
-0.06167122 0.6218636 0.1144 0 0 2 
0.2443366 0.7755121 0.1144 0 0 1 
0.2055418 0.8070938 0.1144 0 0 2 
-0.1366178 0.4669437 0.116 0 0 2 
-0.09621685 0.4317875 0.116 0 0 3 
-0.2069868 0.5216312 0.116 0 0 2 
-0.04275467 0.3575687 0.116 0 0 2 
0.2582304 0.5722613 0.06877501 4.999818 -0.04260063 0 
-0.2402242 0.5548344 0.116 0 0.7071068 3.707107 
-0.01147236 0.3263187 0.116 0 0 2 
0.04318283 0.3575687 0.116 0 0 2 
-0.1366178 0.4669437 -0.084 0 0 -2 
-0.09621685 0.4317875 -0.084 0 0 -3 
0.1677664 1.416813 -0.0856 0 0 -2 
0.02878316 0.4317875 -0.084 0 0 -3 
0.2635554 1.197239 -0.07544375 3.999855 -0.03408044 0 
0.1164545 1.354748 -0.0856 0 0 -3 
-0.2069868 0.5216312 -0.084 0 0 -2 
-0.04275467 0.3575687 -0.084 0 0 -2 
0.04318283 0.3575687 -0.084 0 0 -2 
-0.2417516 0.5765213 -0.07544375 -3.999855 0.03408045 0 
0.008057542 0.3276208 -0.084 0 0 -3 
-0.02833783 1.324731 -0.0856 0 0 -2 
-0.1147593 0.8098229 -0.0856 0 0 -1 
-0.09688574 0.7680023 -0.0856 0 0 -3 
-0.1142268 0.8723206 -0.0856 0 0 -1 
-0.117201 0.9817249 -0.0856 0 0 -2 
-0.09753732 0.997183 -0.0856 0 0 -1 
0.02716162 1.266964 -0.0856 0 0 -3 
0.02958819 1.246109 -0.0856 0 0 -1 
0.1869974 1.381492 0.1144 0 0 4 
0.0923522 1.276825 -0.0856 0 0 -1 
0.136444 1.255616 -0.0856 0 0 -3 
0.1384268 1.182679 -0.0856 0 0 -1 
0.02904167 0.1817875 -0.084 0 0 -3 
0.135379 1.13062 -0.0856 0 0 -3 
-0.2340304 1.482739 -0.039975 -4.999818 0.04260071 0 
0.1373618 1.057684 -0.0856 0 0 -1 
-0.1110318 1.247307 0.1144 0 0 1 
-0.1115642 1.184809 0.1144 0 0 1 
0.2638216 1.228488 0.0519 2.999891 -0.02556033 0 
-0.1120968 1.122312 0.1144 0 0 1 
-0.1126292 1.059814 0.1144 0 0 1 
-0.06522344 1.121912 0.1144 0 0 1 
-0.03344206 1.184144 0.1144 0 0 1 
0.06161474 0.8786352 0.1144 0 0 2 
0.2606266 0.8535012 -0.039975 4.999818 -0.04260062 0 
0.2397648 0.6974232 0.1144 0 0 2 
0.1352318 0.8076929 0.1144 0 0 1 
0.1362967 0.9326884 0.1144 0 0 1 
0.134314 1.005625 0.1144 0 0 3 
0.1329283 0.4526208 0.116 0 0 3 
0.1537832 0.4317875 0.116 0 0 3 
0.2214915 0.4317875 0.116 0 0 3 
-0.1168132 0.2026208 0.116 0 0 3 
-0.3670717 0.4526208 0.116 0 0 3 
-0.1365612 0.4122562 0.116 0 0 2 
-0.08044851 1.168919 0.1144 0 0 3 
-0.1535085 0.4317875 0.116 0 0 3 
-0.3866178 0.4669437 0.116 0 0 2 
-0.09595835 0.1817875 0.116 0 0 3 
-0.3866905 0.5372562 0.116 0 0 2 
-0.02825 0.1817875 0.116 0 0 3 
0.02904167 0.1817875 0.116 0 0 3 
0.09674999 0.1817875 0.116 0 0 3 
-0.3670717 0.4526208 -0.084 0 0 -3 
-0.1168132 0.2026208 -0.084 0 0 -3 
-0.3866905 0.5372562 -0.084 0 0 -2 
-0.1163568 0.6223297 0.1144 0 0 1 
-0.02825 0.1817875 -0.084 0 0 -3 
0.2031 0.9789959 0.1144 0 0 2 
-0.2929243 0.5216312 -0.084 0 0 -2 
-0.04266582 0.2716312 -0.084 0 0 -2 
-0.203125 0.5646 0.032875 0 5 0 
0.1136569 0.2013188 -0.084 0 0 -2 
-0.1363593 0.2169438 -0.084 0 0 -2 
-0.3462168 0.4317875 -0.084 0 0 -3 
-0.136432 0.2872562 -0.084 0 0 -2 
-0.2785085 0.4317875 -0.084 0 0 -3 
-0.1365612 0.4122562 -0.084 0 0 -2 
-0.1535085 0.4317875 -0.084 0 0 -3 
0.1537832 0.4317875 -0.084 0 0 -3 
0.2214915 0.4317875 -0.084 0 0 -3 
-0.1678018 0.5446402 -0.0856 0 0 -2 
0.2092411 0.6299725 -0.0856 0 0 -3 
0.05935865 0.7666712 -0.0856 0 0 -3 
-0.1325137 0.559965 -0.0856 0 0 -1 
0.2624904 1.072243 0.035025 4.999818 -0.0426007 0 
0.0977734 0.4513187 -0.084 0 0 -2 
-0.02727282 1.449726 -0.0856 0 0 -2 
-0.1158243 0.6848274 -0.0856 0 0 -1 
-0.1282537 1.059947 -0.0856 0 0 -1 
0.02755782 0.3575687 -0.084 0 0 -2 
-0.2401541 0.7640146 0.06877501 -4.999818 0.04259825 0 
-0.1126292 1.059814 -0.0856 0 0 -1 
-0.2204028 1.248239 -0.0856 0 0 -1 
-0.2226519 1.289926 -0.0856 0 0 -3 
-0.1863724 1.268783 -0.0856 0 0 -3 
-0.1115642 1.184809 -0.0856 0 0 -1 
-0.1551235 1.268517 -0.0856 0 0 -3 
-0.1110318 1.247307 -0.0856 0 0 -1 
0.2397648 0.6974232 -0.0856 0 0 -2 
-0.2361604 1.232748 -0.039975 -4.999818 0.04260055 0 
0.1352318 0.8076928 -0.0856 0 0 -1 
0.1362967 0.9326883 -0.0856 0 0 -1 
-0.2067283 0.2716312 0.116 -0.9994833 -1.000516 1.414214 
-0.2927547 0.3575687 0.116 -0.9994833 -1.000516 1.414214 
0.134314 1.005624 -0.0856 0 0 -3 
0.1525535 1.006771 -0.0856 0 0 -4 
0.254058 0.5410457 -0.0856 0.7070813 -0.006023966 -1.707107 
0.009570628 0.7306357 0.1144 0 0 3 
0.1683899 0.5730268 0.1144 0 0 2 
-0.02478561 0.8246818 -0.0856 0 0 -2 
0.3322049 0.3966312 0.116 1.000517 -0.999483 1.414214 
-0.1104992 1.309805 -0.0856 0 0 -1 
-0.1099668 1.372303 -0.0856 0 0 -1 
-0.1094342 1.4348 -0.0856 0 0 -1 
-0.09327731 1.497165 -0.0856 0 0 -1 
0.137509 1.380611 -0.0856 0 0 -3 
0.1405568 1.43267 -0.0856 0 0 -1 
0.06243458 1.433336 -0.0856 0 0 -1 
0.2173477 1.27576 -0.0856 0 0 -1 
0.2208393 1.379901 -0.0856 0 0 -3 
0.133357 1.504609 0.1144 0 0 5 
0.1405568 1.43267 0.1144 0 0 1 
0.0301207 1.308607 0.1144 0 0 1 
0.02716162 1.266964 0.1144 0 0 3 
0.218679 1.432005 0.1144 0 0 1 
0.06110332 1.277092 0.1144 0 0 1 
0.137509 1.380611 0.1144 0 0 3 
-0.116714 1.497365 0.1144 0 0 2 
-0.1563076 1.4352 0.1144 0 0 1 
-0.1094342 1.4348 0.1144 0 0 1 
-0.1880889 1.372968 0.1144 0 0 1 
-0.2226519 1.289926 0.1144 0 0 3 
-0.1863724 1.268783 0.1144 0 0 3 
0.333398 0.5021 -0.084 0 0 -3 
-0.1099668 1.372303 0.1144 0 0 1 
-0.1551235 1.268517 0.1144 0 0 3 
-0.1906324 0.7688012 0.1144 0 0 3 
0.2659517 1.478479 0.0519 2.999891 -0.02556033 0 
-0.1142268 0.8723206 0.1144 0 0 1 
-0.02833783 1.324731 0.1144 0 0 2 
-0.1147593 0.8098229 0.1144 0 0 1 
0.136444 1.255616 0.1144 0 0 3 
0.1384268 1.182679 0.1144 0 0 1 
0.1373618 1.057684 0.1144 0 0 1 
-0.09688574 0.7680023 0.1144 0 0 3 
-0.02727282 1.449726 0.1144 0 0 2 
-0.1158243 0.6848274 0.1144 0 0 1 
-0.1108779 0.5636464 0.107555 0 4 1 
-0.2361604 1.232748 -0.07544375 -3.999855 0.03408044 0 
0.2606266 0.8535012 0.08705625 3.999855 -0.03408051 0 
0.1147693 0.6984882 0.1144 0 0 2 
0.1341667 0.6826974 0.1144 0 0 1 
0.1133984 0.4513187 0.116 0 0 2 
-0.01123002 0.09194374 0.116 0 0 2 
-0.2614885 0.3419437 0.116 0 0 2 
-0.296875 0.5646 -0.05665625 0 4 0 
-0.4713461 0.5567875 0.116 0 0.7071068 2.707107 
-0.2210876 0.3067875 0.116 0 0 3 
-0.296875 0.5646 0.01365625 0 4 0 
-0.01130272 0.1622563 0.116 0 0 2 
-0.2615612 0.4122562 0.116 0 0 2 
-0.4036377 0.5567875 0.116 0 0.7071068 2.707107 
-0.1533792 0.3067875 0.116 0 0 3 
-0.2616905 0.5372562 0.116 0 0 2 
-0.2385566 0.9515078 -0.02075625 -3.999855 0.0340805 0 
-0.02837925 0.3067875 0.116 0 0 3 
0.02891242 0.3067875 0.116 0 0 3 
0.3463623 0.5567875 0.116 0 0.7071068 2.707107 
0.09662076 0.3067875 0.116 0 0 3 
0.2072453 0.3575687 0.116 0 0 2 
0.1539124 0.3067875 0.116 0 0 3 
0.2216208 0.3067875 0.116 0 0 3 
-0.2616905 0.5372562 -0.084 0 0 -2 
-0.02837925 0.3067875 -0.084 0 0 -3 
0.02891242 0.3067875 -0.084 0 0 -3 
-0.01129117 0.5745578 -0.0856 0 0 -2 
0.00810625 0.5587669 -0.0856 0 0 -1 
0.1680697 0.4669437 -0.084 0 0 -2 
-0.09966732 0.747192 -0.0856 0 0 -1 
-0.1341567 0.8256137 -0.0856 0 0 -2 
0.1137043 0.5734927 -0.0856 0 0 -2 
0.009171251 0.6837624 -0.0856 0 0 -1 
-0.1174672 0.9504761 -0.0856 0 0 -2 
-0.2401541 0.7640146 -0.039975 -4.999818 0.04259825 0 
-0.1885024 1.018792 -0.0856 0 0 -3 
0.2386998 0.5724277 -0.0856 0 0 -2 
0.01023625 0.8087578 -0.0856 0 0 -1 
0.2579641 0.5410124 -0.039975 4.999818 -0.04259586 0 
0.01076875 0.8712556 -0.0856 0 0 -1 
-0.06350686 1.017727 -0.0856 0 0 -3 
-0.1320267 1.075604 -0.0856 0 0 -2 
0.01130125 0.9337533 -0.0856 0 0 -1 
-0.006217258 1.017239 -0.0856 0 0 -3 
-0.06349281 1.32503 -0.0856 0 0 -3 
-0.2338972 1.498363 -0.0856 -0.7070811 0.006024628 -0.7071068 
0.01396376 1.246242 -0.0856 0 0 -1 
0.1214711 1.026568 -0.0856 0 0 -1 
-0.1366439 1.450657 -0.0856 0 0 -2 
-0.1154249 0.7317007 0.1144 0 0 3 
0.01449626 1.30874 -0.0856 0 0 -1 
-0.06242782 1.450025 -0.0856 0 0 -3 
0.01502876 1.371238 -0.0856 0 0 -1 
0.01556126 1.433735 -0.0856 0 0 -1 
0.1527199 1.026302 -0.0856 0 0 -1 
0.2582304 0.5722613 0.035025 4.999818 -0.04260063 0 
0.1839688 1.026036 -0.0856 0 0 -1 
0.02661396 1.355513 0.1144 0 0 2 
0.2464666 1.025503 -0.0856 0 0 -1 
-0.03131206 1.434135 0.1144 0 0 1 
0.01556126 1.433735 0.1144 0 0 1 
-0.06242782 1.450026 0.1144 0 0 3 
0.01502876 1.371238 0.1144 0 0 1 
0.04685562 0.9803272 0.1144 0 0 2 
-0.1584376 1.185209 0.1144 0 0 1 
-0.1902189 1.122977 0.1144 0 0 1 
0.01343125 1.183744 0.1144 0 0 1 
-0.06350686 1.017727 0.1144 0 0 3 
0.24145 1.353683 -0.0856 0 0 -3 
0.0276246 1.015648 0.1144 0 0 4 
-0.1320267 1.075604 0.1144 0 0 2 
0.01130125 0.9337534 0.1144 0 0 1 
0.01076875 0.8712557 0.1144 0 0 1 
0.2386998 0.5724277 0.1144 0 0 2 
0.01023625 0.8087579 0.1144 0 0 1 
0.1214711 1.026568 0.1144 0 0 1 
0.3320595 0.5372562 -0.084 0 0 -2 
0.1137044 0.5734927 0.1144 0 0 2 
0.2579641 0.5410124 -0.002475002 4.999818 -0.04259586 0 
-0.1341567 0.8256137 0.1144 0 0 2 
0.009171251 0.6837624 0.1144 0 0 1 
-0.01129117 0.5745578 0.1144 0 0 2 
0.01412125 0.5634333 0.107555 0 4 1 
0.1527199 1.026302 0.1144 0 0 1 
0.1839688 1.026036 0.1144 0 0 1 
0.243685 1.004693 0.1144 0 0 3 
0.02661396 1.355513 -0.0856 0 0 -2 
0.2464666 1.025503 0.1144 0 0 1 
-0.01161777 0.4669437 0.116 0 0 2 
-0.09634608 0.5567875 0.116 0 0.7071068 2.707107 
-0.01169048 0.5372562 0.116 0 0 2 
-0.171875 0.5646 -0.0215 0 3 0 
-0.02863775 0.5567875 0.116 0 0.7071068 2.707107 
0.02865391 0.5567875 0.116 0 0.7071068 2.707107 
0.2384388 0.4122562 0.116 0 0 2 
0.09636226 0.5567875 0.116 0 0.7071068 2.707107 
0.1536539 0.5567875 0.116 0 0.7071068 2.707107 
0.4036539 0.5567875 0.116 0 0.7071068 2.707107 
0.4713623 0.5567875 0.116 0 0.7071068 2.707107 
0.4570757 0.5216312 0.116 1.000517 -0.999483 1.414214 
0.2646204 1.322234 -0.02075625 3.999855 -0.03408044 0 
0.3829283 0.4526208 0.116 1.000518 -0.9994817 2.414213 
-0.08159907 0.1466313 0.116 -0.9994833 -1.000516 1.414214 
-0.4178839 0.4825687 0.116 -0.9994833 -1.000516 1.414214 
0.1569799 1.526284 -0.0856 0.006025989 0.7070813 -0.7071067 
-0.06186203 1.51643 -0.0856 0.006023296 0.7070822 -3.707106 
-0.09570389 1.51802 -0.0856 0.006025986 0.7070813 -2.707107 
0.06141505 0.8551986 0.1144 0 0 2 
-0.1529935 1.518508 -0.0856 0.006023297 0.707082 -2.707106 
-0.1868575 1.517494 -0.0856 0.006025989 0.7070813 -3.707107 
-0.2206994 1.519085 -0.0856 0.00602328 0.7070804 -2.707108 
-0.2238337 0.539909 -0.0856 -0.006024632 -0.7070808 -2.707107 
-0.1164899 0.6067052 -0.0856 0 0 -3 
-0.1893187 0.5409171 -0.0856 -0.00602329 -0.7070813 -3.707107 
-0.457003 0.5372562 0.116 0 0 2 
-0.02687118 0.1075687 0.116 0 0 2 
-0.2414854 0.6077702 -0.02075625 -3.999855 0.0340805 0 
0.2627566 1.103492 -0.02075625 3.999855 -0.03408044 0 
0.2634223 1.181614 -0.0856 0.7070813 -0.006024629 -0.7071067 
0.2614395 1.254551 -0.0856 1.414162 -0.01204928 -2.414214 
-0.2358941 1.263996 0.06877501 -4.999818 0.04259833 0 
-0.2344297 1.435865 -0.0856 -0.7070813 0.006024652 -0.7071067 
0.02745819 0.9961179 -0.0856 0 0 -1 
-0.06469094 1.18441 -0.0856 0 0 -1 
-0.09540731 1.247174 -0.0856 0 0 -1 
0.1517881 0.9169309 0.1144 0 0 3 
-0.1568401 1.372702 -0.0856 0 0 -1 
-0.1875564 1.435466 -0.0856 0 0 -1 
-0.2182728 1.49823 -0.0856 0 0 -1 
0.1551162 1.307542 0.1144 0 0 1 
0.0624649 1.131241 0.1144 0 0 3 
0.2638216 1.228488 -0.02075625 3.999855 -0.03408044 0 
0.02799069 1.058616 0.1144 0 0 1 
-0.06735344 0.8719213 0.1144 0 0 1 
0.2609805 1.353516 -0.0856 0.7070811 -0.006024628 -1.707107 
0.09559269 1.19867 -0.0856 0 0 -2 
-0.1338904 0.8568625 0.1144 0 0 2 
-0.08018225 1.200168 0.1144 0 0 3 
0.1314588 0.8233506 0.1144 0 0 2 
-0.1520021 1.48204 -0.0856 0 0 -2 
0.2579934 0.6972678 0.1076292 4.706936 -0.04010515 1.707107 
0.2606266 0.8535012 -0.05825625 3.999855 -0.0340805 0 
0.1004762 0.8548657 0.1144 0 0 2 
-0.453125 0.5646 0.05115625 0 4 0 
-0.359375 0.5646 -0.038375 0 5 0 
0.2590291 0.6660079 0.0519 2.999891 -0.02556037 0 
-0.2348291 1.388992 -0.039975 -4.999818 0.0426007 0 
-0.1543984 1.2008 -0.0856 0 0 -2 
0.2592954 0.6972568 -0.002475002 4.999818 -0.04260063 0 
0.1864105 0.8541335 -0.0856 0 0 -2 
0.2635554 1.197239 -0.002475002 4.999818 -0.04260055 0 
0.1867644 1.354149 -0.0856 0 0 -3 
0.2622534 1.19725 0.1076292 4.706936 -0.04010507 1.707107 
0.2648866 1.353483 -0.05825625 3.999855 -0.03408044 0 
0.09692392 1.354915 0.1144 0 0 2 
-0.1530671 1.357044 0.1144 0 0 2 
-0.1690454 0.8571621 0.1144 0 0 3 
0.1893393 1.197871 0.1144 0 0 2 
0.1698088 1.198038 0.1144 0 0 3 
-0.06491171 0.7000191 0.1144 0 0 2 
-0.109375 0.5646 -0.05665625 0 4 0 
-0.421875 0.5646 0.05115625 0 4 0 
-0.359375 0.5646 -0.004625001 0 5 0 
0.1329686 0.5420774 -0.0856 0 0 -3 
-0.02585061 0.6996863 -0.0856 0 0 -2 
-0.02807157 1.355979 0.1144 0 0 2 
-0.02629547 1.105955 0.1144 0 0 3 
0.2220981 0.9163318 -0.0856 0 0 -3 
0.06221381 0.9489452 0.1144 0 0 2 
0.1872093 0.9478802 0.1144 0 0 2 
0.2611592 0.9159989 0.0519 2.999891 -0.02556037 0 
0.2646204 1.322234 0.0519 2.999891 -0.02556033 0 
0.2648866 1.353483 0.01674375 3.999855 -0.03408044 0 
0.2654192 1.415981 -0.039975 4.999818 -0.0426007 0 
0.2654192 1.415981 -0.002475002 4.999818 -0.0426007 0 
0.2646204 1.322234 -0.07544375 3.999855 -0.03408044 0 
-0.2412191 0.6390191 -0.039975 -4.999818 0.04260062 0 
0.2654192 1.415981 -0.07544375 3.999855 -0.03408056 0 
-0.2412191 0.6390191 0.0519 -2.999891 0.02556037 0 
0.02777593 0.1466313 -0.084 0 0 -2 
-0.2369591 1.139001 0.0519 -2.999891 0.02556042 0 
-0.2369591 1.139001 0.106275 -4.706936 0.04010522 0.7071068 
0.04579061 0.8553316 -0.0856 0 0 -2 
-0.06180435 0.6062393 -0.0856 0 0 -3 
-0.2063304 0.6074707 -0.0856 0 0 -2 
-0.188576 0.8573285 -0.0856 0 0 -2 
-0.06145045 1.106254 -0.0856 0 0 -2 
-0.2059765 1.107486 -0.0856 0 0 -3 
-0.1882221 1.357344 -0.0856 0 0 -3 
0.1311925 0.7921016 -0.0856 0 0 -2 
0.2241404 0.6975563 -0.0856 0 0 -2 
-0.08167177 0.2169438 -0.084 0 0 -2 
-0.3475714 0.4825687 -0.084 0 0 -2 
0.09736878 0.9486455 -0.0856 0 0 -3 
-0.02940283 1.199735 -0.0856 0 0 -2 
0.2205882 1.197605 -0.0856 0 0 -2 
0.06434381 1.198936 0.1144 0 0 2 
-0.1856472 1.201066 0.1144 0 0 2 
-0.06278171 0.9500102 0.1144 0 0 2 
-0.07840616 0.9501433 0.1144 0 0 2 
-0.2034017 0.9512082 0.1144 0 0 2 
-0.1899072 0.7010842 0.1144 0 0 2 
0.046875 0.5646 0.05115625 0 4 0 
0.2219194 1.35385 0.1144 0 0 2 
-0.02451936 0.8559307 0.1144 0 0 2 
0.046875 0.5646 -0.038375 0 5 0 
-0.1516449 0.6070048 0.1144 0 0 2 
0.04312811 0.5428429 0.1144 0 0 2 
-0.02664936 0.6059397 0.1144 0 0 2 
0.2059411 0.8539672 0.1144 0 0 3 
0.109375 0.5646 0.05115625 0 4 0 
0.2600941 0.7910035 -0.002475002 4.999818 -0.04260063 0 
-0.09873545 0.8565631 0.1144 0 0 3 
-0.079916 1.231416 0.1144 0 0 3 
-0.0792049 0.8563967 0.1144 0 0 2 
-0.1348678 1.200634 0.1144 0 0 3 
-0.09944656 1.231583 0.1144 0 0 2 
-0.02913658 1.230983 0.1144 0 0 2 
-0.1689578 1.325928 -0.0856 0 0 -2 
0.3126185 0.4500166 0.116 0 0 3 
0.0433034 1.480376 0.1144 0 0 2 
0.06287699 0.2000167 0.116 0 0 3 
0.06287699 0.2000167 -0.084 0 0 -3 
-0.1338028 1.325629 0.1144 0 0 3 
0.3126185 0.4500166 -0.084 0 0 -3 
-0.2388521 0.7640035 0.1076292 -4.706936 0.0401029 1.707107 
